# .PCD v0.7 - Point Cloud Data file format
VERSION 0.7
FIELDS x y z rgb
SIZE 4 4 4 4
TYPE F F F F
COUNT 1 1 1 1
WIDTH 1003
HEIGHT 1
VIEWPOINT 0 0 0 1 0 0 0
POINTS 1003
DATA ascii
0.39348292 -0.30633417 0.80759835 1.2318323e-38
0.39518908 -0.30928135 0.80609286 1.2318323e-38
0.39144596 -0.30168274 0.80793631 1.2318323e-38
0.39329794 -0.29811499 0.80716664 1.2318323e-38
0.39571369 -0.29562894 0.80744398 1.2318323e-38
0.39809361 -0.29291064 0.80708146 1.2318323e-38
0.40047789 -0.29048684 0.80637485 1.2318323e-38
0.40285042 -0.28774625 0.80723882 1.2318323e-38
0.40528724 -0.28525272 0.80602729 1.2318323e-38
0.40768427 -0.28278464 0.80768204 1.2318323e-38
0.41105163 -0.28071102 0.8075611 1.2318323e-38
0.41354063 -0.27905512 0.80751514 1.2318323e-38
0.41773522 -0.27653649 0.80758679 1.2318323e-38
0.42246246 -0.27371094 0.80758369 1.2318323e-38
0.42726165 -0.27106842 0.80787432 1.2318323e-38
0.43124893 -0.27011272 0.80942285 1.2318323e-38
0.42988437 -0.26940274 0.80602765 1.2318323e-38
0.43283138 -0.26894182 0.80725366 1.2318323e-38
0.43632635 -0.26835918 0.80859756 1.2318323e-38
0.45717961 -0.4233219 0.81315351 1.2318323e-38
0.45392093 -0.41799054 0.81233263 1.2318323e-38
0.44969627 -0.4108761 0.81400734 1.2318323e-38
0.45170942 -0.4141674 0.81138623 1.2318323e-38
0.44776428 -0.40749115 0.81237733 1.2318323e-38
0.44385827 -0.40087849 0.8133589 1.2318323e-38
0.44582874 -0.40410107 0.81075543 1.2318323e-38
0.44183415 -0.39730445 0.8129195 1.2318323e-38
0.43864772 -0.39175177 0.81300288 1.2318323e-38
0.44042754 -0.39476287 0.8106221 1.2318323e-38
0.43635145 -0.38771501 0.81191552 1.2318323e-38
0.43342823 -0.38265789 0.81273395 1.2318323e-38
0.42948595 -0.37548324 0.81392777 1.2318323e-38
0.43102479 -0.37843373 0.8128705 1.2318323e-38
0.42774564 -0.37198687 0.8123433 1.2318323e-38
0.42431223 -0.36526835 0.81373644 1.2318323e-38
0.4255929 -0.36773086 0.81196308 1.2318323e-38
0.42285767 -0.36234695 0.81198776 1.2318323e-38
0.41920596 -0.35539865 0.81457376 1.2318323e-38
0.42055953 -0.35790563 0.81267905 1.2318323e-38
0.41758719 -0.3524 0.8122403 1.2318323e-38
0.41429007 -0.34631467 0.81207716 1.2318323e-38
0.41545635 -0.34846908 0.81252086 1.2318323e-38
0.41214648 -0.34235591 0.81281936 1.2318323e-38
0.40920821 -0.33690795 0.81268686 1.2318323e-38
0.41038543 -0.33911043 0.81239855 1.2318323e-38
0.40691239 -0.33256572 0.81319439 1.2318323e-38
0.40399778 -0.32692391 0.81216234 1.2318323e-38
0.40525347 -0.32937288 0.81349534 1.2318323e-38
0.40182006 -0.32273552 0.81218278 1.2318323e-38
0.39906639 -0.31744146 0.81306982 1.2318323e-38
0.4003225 -0.31988227 0.8143822 1.2318323e-38
0.39667815 -0.31275672 0.81253177 1.2318323e-38
0.39401615 -0.30694753 0.81264949 1.2318323e-38
0.39526743 -0.3098591 0.8134256 1.2318323e-38
0.39229006 -0.30242181 0.81259191 1.2318323e-38
0.39208126 -0.29765448 0.81264329 1.2318323e-38
0.39420027 -0.29454327 0.81290448 1.2318323e-38
0.39654568 -0.29234871 0.81222659 1.2318323e-38
0.39867863 -0.28930432 0.81329161 1.2318323e-38
0.40169084 -0.28668559 0.81284225 1.2318323e-38
0.40430182 -0.28467014 0.81277168 1.2318323e-38
0.4073213 -0.28289673 0.81276703 1.2318323e-38
0.4113315 -0.28055263 0.81244349 1.2318323e-38
0.41382629 -0.27907234 0.81221068 1.2318323e-38
0.41748354 -0.27690938 0.81248385 1.2318323e-38
0.42032441 -0.27524427 0.81300658 1.2318323e-38
0.42289877 -0.27386239 0.81265569 1.2318323e-38
0.42784765 -0.27215254 0.81262469 1.2318323e-38
0.43240923 -0.27073944 0.81238037 1.2318323e-38
0.4352774 -0.27022254 0.81336451 1.2318323e-38
0.43436855 -0.26952475 0.81041443 1.2318323e-38
0.43739095 -0.26902932 0.81243104 1.2318323e-38
0.46340919 -0.42501396 0.81815022 1.2318323e-38
0.45791474 -0.42196453 0.81686515 1.2318323e-38
0.46114594 -0.42397189 0.81740069 1.2318323e-38
0.45316964 -0.41683987 0.81726313 1.2318323e-38
0.45611167 -0.41866007 0.8191573 1.2318323e-38
0.45083055 -0.41303143 0.81770158 1.2318323e-38
0.44790563 -0.40802327 0.81736964 1.2318323e-38
0.44476885 -0.40261 0.81630611 1.2318323e-38
0.44567955 -0.40433848 0.81923735 1.2318323e-38
0.44217187 -0.39815325 0.81817007 1.2318323e-38
0.438602 -0.39185134 0.81790143 1.2318323e-38
0.44006974 -0.39440817 0.81733376 1.2318323e-38
0.43628645 -0.38776922 0.81719875 1.2318323e-38
0.43309888 -0.3822346 0.81754267 1.2318323e-38
0.42999417 -0.37662089 0.81635565 1.2318323e-38
0.43054318 -0.37779516 0.81871569 1.2318323e-38
0.42785013 -0.37247717 0.81823415 1.2318323e-38
0.42469448 -0.36607236 0.81529397 1.2318323e-38
0.42558846 -0.36792314 0.81683499 1.2318323e-38
0.42281342 -0.36246642 0.81747139 1.2318323e-38
0.41969234 -0.35630298 0.8159802 1.2318323e-38
0.42068031 -0.3582387 0.81737775 1.2318323e-38
0.41769657 -0.35256943 0.81772321 1.2318323e-38
0.4142268 -0.34616777 0.81739467 1.2318323e-38
0.41562876 -0.34873918 0.81750011 1.2318323e-38
0.41198063 -0.34198818 0.81765431 1.2318323e-38
0.40896663 -0.33639309 0.81722194 1.2318323e-38
0.41040385 -0.33905813 0.81760478 1.2318323e-38
0.40693289 -0.33260375 0.81735402 1.2318323e-38
0.40408406 -0.32718244 0.81770122 1.2318323e-38
0.4053731 -0.32967353 0.8195942 1.2318323e-38
0.40162393 -0.32235849 0.81737161 1.2318323e-38
0.39915529 -0.31690842 0.8181873 1.2318323e-38
0.40022284 -0.3195405 0.81871706 1.2318323e-38
0.39730912 -0.31260082 0.81741071 1.2318323e-38
0.39453959 -0.30569842 0.81661248 1.2318323e-38
0.39575931 -0.30813754 0.8178336 1.2318323e-38
0.39357567 -0.30240506 0.81762409 1.2318323e-38
0.39179924 -0.29762763 0.81744826 1.2318323e-38
0.39304456 -0.29292357 0.81766963 1.2318323e-38
0.39589506 -0.29028261 0.81670392 1.2318323e-38
0.3980988 -0.28846791 0.81782156 1.2318323e-38
0.40208662 -0.28613475 0.81790215 1.2318323e-38
0.40449452 -0.28471687 0.81738758 1.2318323e-38
0.40776095 -0.28281358 0.81721169 1.2318323e-38
0.41117701 -0.2808432 0.81754637 1.2318323e-38
0.4136157 -0.27942029 0.81736428 1.2318323e-38
0.41733307 -0.27728993 0.81764024 1.2318323e-38
0.42141968 -0.27548641 0.81773776 1.2318323e-38
0.42402217 -0.27433231 0.81725675 1.2318323e-38
0.4276551 -0.27292946 0.8174662 1.2318323e-38
0.4322921 -0.27095854 0.81687176 1.2318323e-38
0.43415916 -0.26951039 0.81901151 1.2318323e-38
0.4365195 -0.26866743 0.81792104 1.2318323e-38
0.45409909 -0.41580665 0.82069415 1.2318323e-38
0.45696786 -0.4175663 0.82114244 1.2318323e-38
0.44942802 -0.41033617 0.82258022 1.2318323e-38
0.45157298 -0.41288003 0.82187438 1.2318323e-38
0.4473128 -0.40730351 0.82224035 1.2318323e-38
0.44404182 -0.40165964 0.82239121 1.2318323e-38
0.44160998 -0.39738113 0.82249475 1.2318323e-38
0.43875533 -0.3923867 0.82317311 1.2318323e-38
0.43483478 -0.3855353 0.82426327 1.2318323e-38
0.43656507 -0.388468 0.8219716 1.2318323e-38
0.43308219 -0.38236678 0.82250571 1.2318323e-38
0.42951936 -0.37599444 0.82215363 1.2318323e-38
0.43065801 -0.37814125 0.82267171 1.2318323e-38
0.42776215 -0.37254396 0.82349563 1.2318323e-38
0.42449483 -0.36596093 0.82177234 1.2318323e-38
0.42591441 -0.36878377 0.82240742 1.2318323e-38
0.42292723 -0.36261237 0.82288432 1.2318323e-38
0.4196201 -0.35572934 0.82228422 1.2318323e-38
0.42087048 -0.35836416 0.82221067 1.2318323e-38
0.41798148 -0.3525255 0.82249409 1.2318323e-38
0.41460571 -0.34642988 0.82204008 1.2318323e-38
0.41601577 -0.34882092 0.82316113 1.2318323e-38
0.41261789 -0.34271735 0.82261306 1.2318323e-38
0.40931931 -0.33672953 0.82225007 1.2318323e-38
0.41033983 -0.3385261 0.82287115 1.2318323e-38
0.40705532 -0.3325676 0.82251412 1.2318323e-38
0.40400815 -0.326864 0.82258719 1.2318323e-38
0.40542251 -0.32944202 0.82366121 1.2318323e-38
0.40219244 -0.32245368 0.82250708 1.2318323e-38
0.39966506 -0.31554866 0.82264233 1.2318323e-38
0.40053937 -0.31791827 0.82270557 1.2318323e-38
0.39835426 -0.31237644 0.82206041 1.2318323e-38
0.3965787 -0.30733293 0.82264566 1.2318323e-38
0.39452124 -0.30200931 0.82220465 1.2318323e-38
0.39535332 -0.30381852 0.82305783 1.2318323e-38
0.39288133 -0.29763612 0.82219869 1.2318323e-38
0.39288726 -0.29218668 0.82274109 1.2318323e-38
0.39527506 -0.29023343 0.82179135 1.2318323e-38
0.39770794 -0.2888419 0.82270044 1.2318323e-38
0.40201077 -0.2863408 0.82270241 1.2318323e-38
0.40471029 -0.28476858 0.82261521 1.2318323e-38
0.40735719 -0.28321633 0.82214606 1.2318323e-38
0.41131312 -0.28092664 0.822532 1.2318323e-38
0.41390413 -0.27940997 0.82287103 1.2318323e-38
0.41746995 -0.27723929 0.82264364 1.2318323e-38
0.42042303 -0.27542016 0.82221019 1.2318323e-38
0.4230521 -0.27395275 0.82305801 1.2318323e-38
0.4275718 -0.27175477 0.82258517 1.2318323e-38
0.43106419 -0.27044332 0.82110351 1.2318323e-38
0.43292511 -0.26900268 0.82322532 1.2318323e-38
0.4358536 -0.2679522 0.82189041 1.2318323e-38
0.45103264 -0.41060328 0.82965195 1.2318323e-38
0.44833636 -0.40729776 0.82817852 1.2318323e-38
0.44455585 -0.40141344 0.82731545 1.2318323e-38
0.44592008 -0.40327367 0.82809132 1.2318323e-38
0.4424814 -0.39745951 0.82780063 1.2318323e-38
0.4389537 -0.39156014 0.82738733 1.2318323e-38
0.44036025 -0.39374873 0.82768118 1.2318323e-38
0.4368149 -0.38747686 0.82775187 1.2318323e-38
0.43360779 -0.38202032 0.82740861 1.2318323e-38
0.43525913 -0.38389108 0.82877922 1.2318323e-38
0.42980498 -0.37610018 0.82687467 1.2318323e-38
0.43139628 -0.37806368 0.82765704 1.2318323e-38
0.42804614 -0.37261638 0.82753056 1.2318323e-38
0.42457414 -0.36549863 0.82779121 1.2318323e-38
0.42585611 -0.36817044 0.82769251 1.2318323e-38
0.42309293 -0.36243308 0.82776356 1.2318323e-38
0.41974378 -0.35534424 0.82825035 1.2318323e-38
0.42092863 -0.35789832 0.82765055 1.2318323e-38
0.4181731 -0.35219708 0.82749051 1.2318323e-38
0.41471055 -0.34583116 0.82701647 1.2318323e-38
0.41666237 -0.34818482 0.82757062 1.2318323e-38
0.41293558 -0.34253025 0.82744002 1.2318323e-38
0.40959579 -0.33651593 0.82699633 1.2318323e-38
0.41098914 -0.33887807 0.82810766 1.2318323e-38
0.40751335 -0.33275273 0.82773113 1.2318323e-38
0.40420279 -0.32660356 0.82744628 1.2318323e-38
0.40550774 -0.32924509 0.82764381 1.2318323e-38
0.40287608 -0.32255244 0.82754374 1.2318323e-38
0.40122682 -0.31779677 0.82734025 1.2318323e-38
0.39916494 -0.31233433 0.8271395 1.2318323e-38
0.40036243 -0.31485176 0.82883376 1.2318323e-38
0.39744768 -0.307567 0.82756573 1.2318323e-38
0.39461881 -0.30027503 0.82688236 1.2318323e-38
0.39580235 -0.30309999 0.82772577 1.2318323e-38
0.39372423 -0.29707474 0.82755256 1.2318323e-38
0.39404762 -0.29314563 0.82676566 1.2318323e-38
0.39582843 -0.2919912 0.82866651 1.2318323e-38
0.39805144 -0.28881052 0.82774734 1.2318323e-38
0.40263557 -0.28609985 0.8272922 1.2318323e-38
0.40485102 -0.28479117 0.82652849 1.2318323e-38
0.40765366 -0.2831836 0.82747763 1.2318323e-38
0.41154113 -0.28087956 0.82784897 1.2318323e-38
0.41388506 -0.2794393 0.82775414 1.2318323e-38
0.41747746 -0.27722621 0.82728332 1.2318323e-38
0.42034069 -0.27546138 0.82743388 1.2318323e-38
0.42278329 -0.27395576 0.82757485 1.2318323e-38
0.42730865 -0.27120861 0.82716531 1.2318323e-38
0.42957446 -0.26976934 0.82819456 1.2318323e-38
0.43228781 -0.26831356 0.82831126 1.2318323e-38
0.45909837 -0.42084649 0.83361238 1.2318323e-38
0.45464402 -0.41541576 0.83114046 1.2318323e-38
0.45702526 -0.41774908 0.83317941 1.2318323e-38
0.45327556 -0.41214108 0.83240336 1.2318323e-38
0.45530653 -0.41478908 0.83331418 1.2318323e-38
0.44922668 -0.4061932 0.83142984 1.2318323e-38
0.45121008 -0.40812019 0.83314902 1.2318323e-38
0.44780889 -0.40262425 0.8328321 1.2318323e-38
0.44385037 -0.39664063 0.83174604 1.2318323e-38
0.44560584 -0.39873263 0.8329128 1.2318323e-38
0.43948096 -0.39008278 0.83033693 1.2318323e-38
0.44206554 -0.39277637 0.83262777 1.2318323e-38
0.43863422 -0.38696235 0.83232427 1.2318323e-38
0.44058225 -0.38909435 0.83393049 1.2318323e-38
0.43481886 -0.38181669 0.83036566 1.2318323e-38
0.43651521 -0.38279259 0.83284241 1.2318323e-38
0.43286687 -0.37750578 0.8318063 1.2318323e-38
0.43504435 -0.37917614 0.83408618 1.2318323e-38
0.42894086 -0.37188789 0.83239812 1.2318323e-38
0.43080977 -0.37424287 0.8326112 1.2318323e-38
0.42655998 -0.36772922 0.83276558 1.2318323e-38
0.42362425 -0.36230329 0.83260739 1.2318323e-38
0.41982543 -0.3550902 0.83218628 1.2318323e-38
0.42122507 -0.35766044 0.83271229 1.2318323e-38
0.48868966 -0.35655308 0.83416629 1.2318323e-38
0.41853756 -0.35224816 0.83277839 1.2318323e-38
0.41614574 -0.34753591 0.83275127 1.2318323e-38
0.41309494 -0.34233069 0.83249509 1.2318323e-38
0.40943384 -0.3357088 0.83229887 1.2318323e-38
0.41072789 -0.33794531 0.83252913 1.2318323e-38
0.47722703 -0.33680707 0.83364308 1.2318323e-38
0.4075143 -0.33230886 0.83295226 1.2318323e-38
0.47580504 -0.33380359 0.83333838 1.2318323e-38
0.40456256 -0.32659525 0.83263367 1.2318323e-38
0.40558037 -0.32870474 0.83363217 1.2318323e-38
0.40331346 -0.32274348 0.83252048 1.2318323e-38
0.40166014 -0.3175998 0.83227426 1.2318323e-38
0.39961487 -0.31144124 0.83234072 1.2318323e-38
0.40052009 -0.31396654 0.8326748 1.2318323e-38
0.39817953 -0.30750006 0.8325631 1.2318323e-38
0.39619046 -0.3022981 0.83226705 1.2318323e-38
0.45693958 -0.3018899 0.83228725 1.2318323e-38
0.39473653 -0.29781482 0.83080453 1.2318323e-38
0.39617014 -0.29725465 0.8330301 1.2318323e-38
0.39792717 -0.29250133 0.83250082 1.2318323e-38
0.40042812 -0.29018694 0.83482873 1.2318323e-38
0.39901257 -0.2890963 0.83178025 1.2318323e-38
0.40204847 -0.28678477 0.83253741 1.2318323e-38
0.40499055 -0.28481352 0.83041179 1.2318323e-38
0.4075473 -0.28333041 0.83277321 1.2318323e-38
0.4116565 -0.28094944 0.83326411 1.2318323e-38
0.41408756 -0.27946064 0.83251315 1.2318323e-38
0.41753399 -0.27756685 0.83268756 1.2318323e-38
0.42170414 -0.27574843 0.83347666 1.2318323e-38
0.42365903 -0.27388218 0.83172274 1.2318323e-38
0.42747125 -0.27245793 0.83253276 1.2318323e-38
0.43230993 -0.27130526 0.83349794 1.2318323e-38
0.43580416 -0.27061787 0.83409965 1.2318323e-38
0.43274754 -0.26930559 0.83107138 1.2318323e-38
0.43608853 -0.2694568 0.8327288 1.2318323e-38
0.46410507 -0.4264003 0.83644187 1.2318323e-38
0.46535909 -0.42678651 0.83690548 1.2318323e-38
0.46261236 -0.4224135 0.8372615 1.2318323e-38
0.46682626 -0.42258099 0.83895069 1.2318323e-38
0.45862558 -0.41709897 0.83706021 1.2318323e-38
0.46188775 -0.41801566 0.83912677 1.2318323e-38
0.4654265 -0.41921115 0.83978349 1.2318323e-38
0.45422387 -0.41034666 0.83664459 1.2318323e-38
0.45672396 -0.4131225 0.83807248 1.2318323e-38
0.45300817 -0.40757072 0.83759892 1.2318323e-38
0.44917387 -0.40172154 0.83677959 1.2318323e-38
0.45096368 -0.40372142 0.83811313 1.2318323e-38
0.44486696 -0.39534843 0.83544773 1.2318323e-38
0.44751453 -0.39810336 0.83766907 1.2318323e-38
0.44349778 -0.39153263 0.83718097 1.2318323e-38
0.44560158 -0.39410353 0.83848786 1.2318323e-38
0.43946165 -0.38512498 0.83636421 1.2318323e-38
0.4415895 -0.38765991 0.83784008 1.2318323e-38
0.43827879 -0.38233715 0.83721697 1.2318323e-38
0.4403379 -0.38434803 0.83921188 1.2318323e-38
0.4339492 -0.37618992 0.83650446 1.2318323e-38
0.43637648 -0.37885404 0.83754289 1.2318323e-38
0.4321017 -0.37251547 0.83807558 1.2318323e-38
0.44415802 -0.37032887 0.83857054 1.2318323e-38
0.42823446 -0.36705294 0.83699948 1.2318323e-38
0.43123412 -0.36757413 0.83903879 1.2318323e-38
0.42440677 -0.3615844 0.83607388 1.2318323e-38
0.42775559 -0.36237898 0.83763033 1.2318323e-38
0.43084139 -0.36231115 0.83954859 1.2318323e-38
0.42297128 -0.35705677 0.83629608 1.2318323e-38
0.4274036 -0.35765293 0.8382169 1.2318323e-38
0.43054754 -0.35837013 0.83993047 1.2318323e-38
0.488316 -0.35909745 0.83756071 1.2318323e-38
0.419166 -0.35142708 0.83575422 1.2318323e-38
0.42242095 -0.3525399 0.83695805 1.2318323e-38
0.4272958 -0.35261485 0.8390283 1.2318323e-38
0.41821563 -0.3474417 0.8360616 1.2318323e-38
0.42244843 -0.34742489 0.83788192 1.2318323e-38
0.42620942 -0.34779167 0.83941311 1.2318323e-38
0.41400841 -0.34200776 0.8354013 1.2318323e-38
0.41742814 -0.34249035 0.83643311 1.2318323e-38
0.42255586 -0.34255582 0.83864057 1.2318323e-38
0.42606211 -0.34497941 0.83985341 1.2318323e-38
0.4781267 -0.34254473 0.83852106 1.2318323e-38
0.41248047 -0.33718443 0.83565384 1.2318323e-38
0.41753641 -0.33738557 0.83717614 1.2318323e-38
0.42217284 -0.33774281 0.83904344 1.2318323e-38
0.47347471 -0.33581623 0.83807838 1.2318323e-38
0.47607172 -0.33844587 0.83698779 1.2318323e-38
0.4089061 -0.33176455 0.8353858 1.2318323e-38
0.41265598 -0.33267885 0.83636063 1.2318323e-38
0.41784784 -0.33257115 0.83793014 1.2318323e-38
0.42159781 -0.33286735 0.8393659 1.2318323e-38
0.47185776 -0.3318328 0.83736271 1.2318323e-38
0.40783313 -0.32738242 0.83573443 1.2318323e-38
0.41249779 -0.32750919 0.8370654 1.2318323e-38
0.41737118 -0.32750762 0.83850521 1.2318323e-38
0.42089033 -0.32812062 0.8396135 1.2318323e-38
0.46838564 -0.32780722 0.83919644 1.2318323e-38
0.47015834 -0.32694989 0.83609223 1.2318323e-38
0.40391159 -0.32203895 0.83596879 1.2318323e-38
0.40741652 -0.32235932 0.83668423 1.2318323e-38
0.41238531 -0.32246485 0.83778518 1.2318323e-38
0.41702196 -0.32258725 0.83911711 1.2318323e-38
0.42008263 -0.3238416 0.83983898 1.2318323e-38
0.46336028 -0.32149196 0.83931756 1.2318323e-38
0.46656483 -0.32257661 0.83762854 1.2318323e-38
0.40294826 -0.31714094 0.83685452 1.2318323e-38
0.40752053 -0.31733188 0.83796996 1.2318323e-38
0.41258621 -0.31726456 0.83894104 1.2318323e-38
0.41641334 -0.31795168 0.83965063 1.2318323e-38
0.459429 -0.31697237 0.83915329 1.2318323e-38
0.46254683 -0.31804615 0.83799958 1.2318323e-38
0.39980784 -0.31070769 0.83671069 1.2318323e-38
0.4023259 -0.31240848 0.8379389 1.2318323e-38
0.40750861 -0.3126348 0.83915114 1.2318323e-38
0.41165313 -0.3136192 0.83967894 1.2318323e-38
0.45776239 -0.31194544 0.83921403 1.2318323e-38
0.46068439 -0.31349754 0.83762544 1.2318323e-38
0.39878777 -0.30727595 0.83739859 1.2318323e-38
0.40204775 -0.30779976 0.83934665 1.2318323e-38
0.40599954 -0.30918947 0.83973646 1.2318323e-38
0.45725685 -0.30795246 0.83835316 1.2318323e-38
0.3979879 -0.30224538 0.8381049 1.2318323e-38
0.40244907 -0.30155009 0.83961594 1.2318323e-38
0.40730667 -0.30096853 0.8397631 1.2318323e-38
0.41193661 -0.30034995 0.83988911 1.2318323e-38
0.45444125 -0.30382681 0.83934236 1.2318323e-38
0.45568442 -0.302863 0.8358317 1.2318323e-38
0.39849794 -0.29732674 0.83688921 1.2318323e-38
0.40247595 -0.29766831 0.83875805 1.2318323e-38
0.40742642 -0.29733214 0.83896482 1.2318323e-38
0.41225797 -0.29748955 0.83939546 1.2318323e-38
0.41558665 -0.29563409 0.83991235 1.2318323e-38
0.45145959 -0.29912567 0.83907878 1.2318323e-38
0.39948213 -0.29344177 0.83566368 1.2318323e-38
0.40213275 -0.29242742 0.83725709 1.2318323e-38
0.4073706 -0.29252324 0.83795559 1.2318323e-38
0.41261196 -0.29249492 0.83897203 1.2318323e-38
0.41599226 -0.29185215 0.83976334 1.2318323e-38
0.40322012 -0.28784996 0.83630997 1.2318323e-38
0.4078182 -0.28746513 0.83744842 1.2318323e-38
0.41285673 -0.28740627 0.83869743 1.2318323e-38
0.4167605 -0.2873596 0.83965689 1.2318323e-38
0.44384122 -0.28639305 0.83971751 1.2318323e-38
0.44607925 -0.28957558 0.83986437 1.2318323e-38
0.40814057 -0.28396183 0.83647573 1.2318323e-38
0.41282159 -0.28261819 0.83738869 1.2318323e-38
0.41701451 -0.28213292 0.83887315 1.2318323e-38
0.44209564 -0.28201953 0.83896071 1.2318323e-38
0.41820559 -0.27924004 0.83658218 1.2318323e-38
0.42257717 -0.27787945 0.83751082 1.2318323e-38
0.42744863 -0.2770845 0.83834696 1.2318323e-38
0.43247885 -0.27685505 0.83884084 1.2318323e-38
0.43760741 -0.27717975 0.83889413 1.2318323e-38
0.44115531 -0.27854344 0.83817261 1.2318323e-38
0.42825246 -0.27432013 0.83564711 1.2318323e-38
0.43259418 -0.27368656 0.83660918 1.2318323e-38
0.43704891 -0.27264017 0.83667934 1.2318323e-38
0.44031328 -0.27482808 0.83726221 1.2318323e-38
0.46904179 -0.42062604 0.84038138 1.2318323e-38
0.46377167 -0.41604283 0.84046048 1.2318323e-38
0.46758902 -0.41743639 0.84112966 1.2318323e-38
0.47180614 -0.4171668 0.84250128 1.2318323e-38
0.45858082 -0.41141844 0.84057981 1.2318323e-38
0.46265984 -0.4123584 0.84147185 1.2318323e-38
0.46753821 -0.41270956 0.84265918 1.2318323e-38
0.47242606 -0.41223374 0.84359437 1.2318323e-38
0.47669819 -0.41195214 0.84432101 1.2318323e-38
0.45419857 -0.40641096 0.84095329 1.2318323e-38
0.45710412 -0.40756118 0.84144902 1.2318323e-38
0.46224836 -0.4074724 0.84248096 1.2318323e-38
0.46745598 -0.40745664 0.84324479 1.2318323e-38
0.47250363 -0.40766162 0.84398562 1.2318323e-38
0.47717348 -0.40762728 0.84476936 1.2318323e-38
0.45263785 -0.40225878 0.84138429 1.2318323e-38
0.45783892 -0.40248317 0.84226835 1.2318323e-38
0.46277669 -0.40252003 0.84296322 1.2318323e-38
0.46742094 -0.40233773 0.8436417 1.2318323e-38
0.47244465 -0.40273115 0.84438854 1.2318323e-38
0.4759832 -0.4033547 0.84493208 1.2318323e-38
0.44860998 -0.39666283 0.84130192 1.2318323e-38
0.45227596 -0.39731503 0.84217221 1.2318323e-38
0.45738932 -0.39772466 0.84269392 1.2318323e-38
0.46246424 -0.39738849 0.84333819 1.2318323e-38
0.46746141 -0.39762947 0.84402031 1.2318323e-38
0.47216406 -0.39775467 0.84476405 1.2318323e-38
0.49485245 -0.3961229 0.84485042 1.2318323e-38
0.44485468 -0.3903935 0.84139878 1.2318323e-38
0.44739103 -0.39229155 0.84198517 1.2318323e-38
0.45260894 -0.39242473 0.84277654 1.2318323e-38
0.45761511 -0.39253011 0.84332174 1.2318323e-38
0.46254981 -0.39236629 0.84388751 1.2318323e-38
0.46769884 -0.39281124 0.84445888 1.2318323e-38
0.47098571 -0.39351687 0.84492755 1.2318323e-38
0.49370003 -0.39238182 0.84484261 1.2318323e-38
0.49723196 -0.39179844 0.84414899 1.2318323e-38
0.44322455 -0.38690829 0.84172398 1.2318323e-38
0.44744936 -0.38732895 0.84279346 1.2318323e-38
0.45251656 -0.3876608 0.84331614 1.2318323e-38
0.45718175 -0.38731825 0.84384727 1.2318323e-38
0.46243197 -0.38750443 0.84435433 1.2318323e-38
0.46716547 -0.38794711 0.84480762 1.2318323e-38
0.49290484 -0.38742131 0.84469569 1.2318323e-38
0.49752757 -0.38721439 0.84382087 1.2318323e-38
0.50162888 -0.38917741 0.84317267 1.2318323e-38
0.43937305 -0.38110375 0.84109497 1.2318323e-38
0.44227287 -0.38232315 0.84252602 1.2318323e-38
0.44758704 -0.38256189 0.84332192 1.2318323e-38
0.45241162 -0.38256136 0.84380007 1.2318323e-38
0.45755154 -0.38244337 0.84431225 1.2318323e-38
0.46268824 -0.38260576 0.84480405 1.2318323e-38
0.46598774 -0.38436592 0.84498483 1.2318323e-38
0.4895862 -0.38088778 0.84492564 1.2318323e-38
0.49256676 -0.38293821 0.84449172 1.2318323e-38
0.49661544 -0.38267606 0.84372079 1.2318323e-38
0.43493783 -0.37544632 0.8401866 1.2318323e-38
0.4377532 -0.37713701 0.84178376 1.2318323e-38
0.44260451 -0.3775216 0.84324235 1.2318323e-38
0.44753551 -0.3774052 0.84376615 1.2318323e-38
0.45232117 -0.37735906 0.84423733 1.2318323e-38
0.45729885 -0.37784424 0.84468204 1.2318323e-38
0.46116614 -0.37982339 0.8448931 1.2318323e-38
0.48942709 -0.37688637 0.84471703 1.2318323e-38
0.49278641 -0.3776747 0.84413719 1.2318323e-38
0.49617726 -0.37899068 0.84337306 1.2318323e-38
0.4343791 -0.37188479 0.84051025 1.2318323e-38
0.43724099 -0.37257025 0.84216881 1.2318323e-38
0.44244069 -0.37243047 0.84344757 1.2318323e-38
0.44750232 -0.37260941 0.8441627 1.2318323e-38
0.45235771 -0.37260056 0.84464896 1.2318323e-38
0.45629978 -0.37399143 0.84491467 1.2318323e-38
0.48442459 -0.37036729 0.84494579 1.2318323e-38
0.48743081 -0.37229824 0.84477067 1.2318323e-38
0.49080268 -0.37258378 0.84420413 1.2318323e-38
0.43369108 -0.36771098 0.84066254 1.2318323e-38
0.43711254 -0.36758009 0.84252936 1.2318323e-38
0.44234544 -0.36740556 0.84356719 1.2318323e-38
0.4477461 -0.36741993 0.84446615 1.2318323e-38
0.45103443 -0.36889991 0.84483701 1.2318323e-38
0.48319393 -0.36690462 0.84484065 1.2318323e-38
0.48738372 -0.36785501 0.84450012 1.2318323e-38
0.49032652 -0.36919028 0.84409088 1.2318323e-38
0.4332785 -0.36258811 0.8411386 1.2318323e-38
0.43727002 -0.36273459 0.84281248 1.2318323e-38
0.44225118 -0.36238369 0.84368569 1.2318323e-38
0.44779211 -0.36246577 0.84460473 1.2318323e-38
0.4789471 -0.3617546 0.8449074 1.2318323e-38
0.48303473 -0.3624284 0.84459072 1.2318323e-38
0.48722762 -0.36341652 0.84321404 1.2318323e-38
0.43272787 -0.35730842 0.84149861 1.2318323e-38
0.43736044 -0.35755065 0.84299922 1.2318323e-38
0.4421573 -0.35736445 0.84380341 1.2318323e-38
0.44773164 -0.35745174 0.84467971 1.2318323e-38
0.47426683 -0.35603553 0.84498274 1.2318323e-38
0.47797212 -0.3573741 0.84473795 1.2318323e-38
0.48228523 -0.35778475 0.84433544 1.2318323e-38
0.42896432 -0.35096794 0.84001333 1.2318323e-38
0.43231407 -0.35236081 0.84180218 1.2318323e-38
0.43765536 -0.35233471 0.84318626 1.2318323e-38
0.44237909 -0.35255408 0.84394407 1.2318323e-38
0.4477247 -0.35248545 0.84468848 1.2318323e-38
0.47334692 -0.35222128 0.84484136 1.2318323e-38
0.4777163 -0.35258794 0.8444823 1.2318323e-38
0.48137626 -0.35304812 0.84324485 1.2318323e-38
0.42881018 -0.34738579 0.84061086 1.2318323e-38
0.43262747 -0.34740642 0.84237248 1.2318323e-38
0.43787596 -0.3475005 0.84332716 1.2318323e-38
0.44271743 -0.34741056 0.8440783 1.2318323e-38
0.44775701 -0.34755272 0.84464878 1.2318323e-38
0.45146063 -0.34766218 0.84496403 1.2318323e-38
0.45948559 -0.34518641 0.84496391 1.2318323e-38
0.46307039 -0.34608164 0.84495389 1.2318323e-38
0.46796089 -0.34634653 0.84487635 1.2318323e-38
0.47306105 -0.34756702 0.84459603 1.2318323e-38
0.47768459 -0.34796724 0.84328318 1.2318323e-38
0.48021019 -0.34919095 0.84198517 1.2318323e-38
0.42764771 -0.34228563 0.84094292 1.2318323e-38
0.43236327 -0.34254014 0.84251642 1.2318323e-38
0.43782091 -0.34253865 0.84339702 1.2318323e-38
0.44269559 -0.34245539 0.84410572 1.2318323e-38
0.44695765 -0.34256935 0.84450996 1.2318323e-38
0.45213324 -0.34218839 0.84484082 1.2318323e-38
0.45799318 -0.34235939 0.84481698 1.2318323e-38
0.46292111 -0.34261283 0.84474283 1.2318323e-38
0.46792629 -0.3424665 0.84463888 1.2318323e-38
0.47279295 -0.3426165 0.84367526 1.2318323e-38
0.47635394 -0.3443045 0.84255135 1.2318323e-38
0.42435196 -0.33690462 0.84012395 1.2318323e-38
0.42722982 -0.33742231 0.84135717 1.2318323e-38
0.43226442 -0.3375656 0.8426441 1.2318323e-38
0.43780664 -0.33742926 0.84347254 1.2318323e-38
0.44272277 -0.33754185 0.84407181 1.2318323e-38
0.44712505 -0.33745971 0.84445262 1.2318323e-38
0.45247659 -0.33756647 0.8446995 1.2318323e-38
0.45818999 -0.3375051 0.84457904 1.2318323e-38
0.46314457 -0.33775154 0.84447592 1.2318323e-38
0.46788815 -0.33762801 0.8443293 1.2318323e-38
0.4719997 -0.33874688 0.84276092 1.2318323e-38
0.42364016 -0.33187151 0.84040362 1.2318323e-38
0.42685413 -0.33260319 0.84171677 1.2318323e-38
0.43216804 -0.33259577 0.84276831 1.2318323e-38
0.43773723 -0.33233359 0.8435033 1.2318323e-38
0.44277355 -0.33264747 0.84400839 1.2318323e-38
0.44717452 -0.33254218 0.84439135 1.2318323e-38
0.45252457 -0.33261997 0.84464079 1.2318323e-38
0.45824289 -0.33253109 0.84451526 1.2318323e-38
0.4629086 -0.33299428 0.84436768 1.2318323e-38
0.46700001 -0.33243707 0.84313482 1.2318323e-38
0.42352331 -0.32714894 0.84091407 1.2318323e-38
0.4278847 -0.32772422 0.84241033 1.2318323e-38
0.4327589 -0.32755074 0.84298944 1.2318323e-38
0.43774462 -0.3274267 0.84349424 1.2318323e-38
0.44271171 -0.32753891 0.84393525 1.2318323e-38
0.44733843 -0.32742479 0.84433866 1.2318323e-38
0.45222154 -0.32780531 0.84459287 1.2318323e-38
0.45741579 -0.32746372 0.84437799 1.2318323e-38
0.46251234 -0.32774273 0.8429547 1.2318323e-38
0.46628088 -0.32793513 0.8412168 1.2318323e-38
0.41984913 -0.3212252 0.84015036 1.2318323e-38
0.42285714 -0.32244536 0.84117544 1.2318323e-38
0.42769581 -0.32270044 0.84265661 1.2318323e-38
0.43264008 -0.32256377 0.84314233 1.2318323e-38
0.4377166 -0.32249111 0.84352982 1.2318323e-38
0.44284382 -0.32241914 0.84392005 1.2318323e-38
0.44726834 -0.3222858 0.84427506 1.2318323e-38
0.45210138 -0.32233402 0.84432083 1.2318323e-38
0.45744058 -0.32267761 0.84278131 1.2318323e-38
0.46189275 -0.3235254 0.8410871 1.2318323e-38
0.4650051 -0.32493049 0.84028888 1.2318323e-38
0.41873291 -0.31724524 0.84040242 1.2318323e-38
0.42246464 -0.31745774 0.84162819 1.2318323e-38
0.42755759 -0.31772298 0.8428368 1.2318323e-38
0.4326708 -0.31741402 0.84325397 1.2318323e-38
0.43764919 -0.31752434 0.84361529 1.2318323e-38
0.44296539 -0.31728813 0.84391874 1.2318323e-38
0.4474068 -0.31743431 0.84410375 1.2318323e-38
0.45200813 -0.31746778 0.84342611 1.2318323e-38
0.45671076 -0.3180573 0.84106117 1.2318323e-38
0.40966576 -0.31085306 0.84000373 1.2318323e-38
0.41309187 -0.31162664 0.84045023 1.2318323e-38
0.41740438 -0.31259897 0.84101391 1.2318323e-38
0.42219472 -0.31260556 0.84212625 1.2318323e-38
0.4275887 -0.31251076 0.84290594 1.2318323e-38
0.43265244 -0.31239042 0.84312654 1.2318323e-38
0.4373669 -0.3127138 0.84327227 1.2318323e-38
0.4424746 -0.31231451 0.84328294 1.2318323e-38
0.4477562 -0.31254116 0.84339154 1.2318323e-38
0.45278618 -0.31272927 0.84225339 1.2318323e-38
0.45612794 -0.3122952 0.8402285 1.2318323e-38
0.40440512 -0.30583641 0.84028268 1.2318323e-38
0.40772972 -0.30718067 0.8405059 1.2318323e-38
0.41261622 -0.30747113 0.84112954 1.2318323e-38
0.41767403 -0.3076058 0.84173697 1.2318323e-38
0.42226446 -0.30737755 0.8423534 1.2318323e-38
0.42692351 -0.30762133 0.84267789 1.2318323e-38
0.43243906 -0.30758309 0.84247768 1.2318323e-38
0.43776584 -0.30750388 0.84248435 1.2318323e-38
0.44239983 -0.30729309 0.84251714 1.2318323e-38
0.44721636 -0.30780125 0.84266204 1.2318323e-38
0.45166758 -0.3073208 0.84188533 1.2318323e-38
0.45549488 -0.30899781 0.84001857 1.2318323e-38
0.40261507 -0.30414638 0.84018105 1.2318323e-38
0.40746304 -0.30342603 0.84031606 1.2318323e-38
0.41253686 -0.30292988 0.84049451 1.2318323e-38
0.41723657 -0.30238864 0.84084737 1.2318323e-38
0.42213991 -0.30255267 0.84199983 1.2318323e-38
0.42740393 -0.30240819 0.84303731 1.2318323e-38
0.43303147 -0.30250284 0.84263974 1.2318323e-38
0.43799034 -0.30234918 0.84219915 1.2318323e-38
0.44288418 -0.30251214 0.84190851 1.2318323e-38
0.4476268 -0.30252233 0.8418712 1.2318323e-38
0.45164815 -0.30301002 0.84121019 1.2318323e-38
0.41749948 -0.29767364 0.8405183 1.2318323e-38
0.42226976 -0.29757121 0.84171212 1.2318323e-38
0.42725828 -0.29738533 0.84305209 1.2318323e-38
0.43247727 -0.29739043 0.84335238 1.2318323e-38
0.43748289 -0.29745498 0.84284419 1.2318323e-38
0.44254953 -0.29752046 0.84232974 1.2318323e-38
0.44737068 -0.29729974 0.84159994 1.2318323e-38
0.41841221 -0.29274145 0.84041858 1.2318323e-38
0.42269063 -0.2925885 0.84150463 1.2318323e-38
0.42759907 -0.29235452 0.84283966 1.2318323e-38
0.43209562 -0.29242107 0.84384209 1.2318323e-38
0.43695557 -0.29255667 0.84351498 1.2318323e-38
0.44241139 -0.29273102 0.84233999 1.2318323e-38
0.44635218 -0.29238874 0.84070587 1.2318323e-38
0.41903943 -0.28768468 0.84024024 1.2318323e-38
0.42281836 -0.28759468 0.84121954 1.2318323e-38
0.42775917 -0.28748766 0.8425734 1.2318323e-38
0.43240356 -0.287442 0.84357721 1.2318323e-38
0.43740097 -0.28751314 0.84278518 1.2318323e-38
0.44184786 -0.28780285 0.84102798 1.2318323e-38
0.4198789 -0.28257406 0.8401106 1.2318323e-38
0.42266226 -0.28262639 0.84074932 1.2318323e-38
0.42740691 -0.2823658 0.84127998 1.2318323e-38
0.43248519 -0.28253153 0.84159338 1.2318323e-38
0.43732959 -0.2825889 0.84107226 1.2318323e-38
0.44122708 -0.28418565 0.84005868 1.2318323e-38
0.42443627 -0.27988195 0.84001279 1.2318323e-38
0.42744684 -0.27965778 0.8400172 1.2318323e-38
0.43267819 -0.2795046 0.84013915 1.2318323e-38
0.43642029 -0.27946377 0.84025943 1.2318323e-38
0.47912368 -0.40656266 0.84518915 1.2318323e-38
0.48189527 -0.40664163 0.84565043 1.2318323e-38
0.47775343 -0.40238285 0.84531361 1.2318323e-38
0.48259556 -0.40240818 0.84612948 1.2318323e-38
0.48697862 -0.40195975 0.84657645 1.2318323e-38
0.47409558 -0.39667931 0.84518218 1.2318323e-38
0.4772976 -0.39749315 0.84565473 1.2318323e-38
0.4825967 -0.39761269 0.84643626 1.2318323e-38
0.48753288 -0.3975924 0.8462733 1.2318323e-38
0.49149323 -0.39746234 0.8455568 1.2318323e-38
0.4725183 -0.39226806 0.84529567 1.2318323e-38
0.47753006 -0.39251485 0.84612411 1.2318323e-38
0.48275846 -0.39288273 0.84645939 1.2318323e-38
0.48743191 -0.39222053 0.84594786 1.2318323e-38
0.49156392 -0.3932437 0.84529239 1.2318323e-38
0.46911287 -0.38689241 0.84518337 1.2318323e-38
0.47276381 -0.38731742 0.84576601 1.2318323e-38
0.47782883 -0.38759631 0.84638584 1.2318323e-38
0.48261797 -0.38745242 0.84614456 1.2318323e-38
0.48720023 -0.38735422 0.84568143 1.2318323e-38
0.49116579 -0.38861337 0.84509104 1.2318323e-38
0.46425295 -0.38105452 0.84509969 1.2318323e-38
0.46747923 -0.38233021 0.84534365 1.2318323e-38
0.47236249 -0.38256487 0.84609616 1.2318323e-38
0.47785774 -0.38267356 0.84626228 1.2318323e-38
0.48227397 -0.38212746 0.84584892 1.2318323e-38
0.48707843 -0.38275328 0.84543037 1.2318323e-38
0.45940414 -0.37586927 0.84506196 1.2318323e-38
0.46263331 -0.37732458 0.8452633 1.2318323e-38
0.46768823 -0.37736362 0.84581876 1.2318323e-38
0.4728978 -0.37790409 0.84628201 1.2318323e-38
0.47732353 -0.37718093 0.84597278 1.2318323e-38
0.48217079 -0.37756339 0.84557915 1.2318323e-38
0.48663479 -0.37798762 0.84521025 1.2318323e-38
0.45460141 -0.37073374 0.84502816 1.2318323e-38
0.45766854 -0.37219837 0.84520853 1.2318323e-38
0.46216211 -0.37239859 0.84564954 1.2318323e-38
0.4674738 -0.3725245 0.84614706 1.2318323e-38
0.47246107 -0.37270105 0.8461175 1.2318323e-38
0.47699293 -0.3723892 0.84570861 1.2318323e-38
0.48214898 -0.37263727 0.84528017 1.2318323e-38
0.48604923 -0.37421635 0.84504104 1.2318323e-38
0.44015008 -0.3663598 0.84752756 1.2318323e-38
0.4532243 -0.36718437 0.84519202 1.2318323e-38
0.45751697 -0.36753234 0.84556872 1.2318323e-38
0.46216643 -0.36754531 0.84594417 1.2318323e-38
0.4670465 -0.36749598 0.84616518 1.2318323e-38
0.47201142 -0.36732879 0.84583491 1.2318323e-38
0.47726902 -0.36751094 0.84538931 1.2318323e-38
0.48145843 -0.36867943 0.84509784 1.2318323e-38
0.45280337 -0.36261609 0.84527284 1.2318323e-38
0.45736298 -0.36270395 0.84557796 1.2318323e-38
0.46199039 -0.36239579 0.84585476 1.2318323e-38
0.46685636 -0.36267188 0.84590369 1.2318323e-38
0.4721266 -0.36240205 0.84553856 1.2318323e-38
0.47683069 -0.36305141 0.84516692 1.2318323e-38
0.45285958 -0.35747296 0.84520406 1.2318323e-38
0.4574239 -0.35774919 0.84550446 1.2318323e-38
0.46214941 -0.3575002 0.84566516 1.2318323e-38
0.46725306 -0.35761738 0.84558445 1.2318323e-38
0.47221708 -0.35766912 0.84525591 1.2318323e-38
0.47590309 -0.35922003 0.84502518 1.2318323e-38
0.45292023 -0.35233214 0.84513015 1.2318323e-38
0.45751226 -0.35281625 0.84539771 1.2318323e-38
0.46240494 -0.35247242 0.84535956 1.2318323e-38
0.4672721 -0.35239136 0.84526277 1.2318323e-38
0.47125435 -0.35353249 0.84509957 1.2318323e-38
0.45374385 -0.34726784 0.84509867 1.2318323e-38
0.45759016 -0.34775099 0.84515393 1.2318323e-38
0.46238098 -0.34841862 0.8451103 1.2318323e-38
0.46726054 -0.34869373 0.84503633 1.2318323e-38
0.45381913 -0.34421188 0.84500694 1.2318323e-38
0.4332886 -0.31269115 0.84528065 1.2318323e-38
0.4727152 -0.3984592 0.85045451 1.2318323e-38
0.46623766 -0.40049931 0.85757816 1.2318323e-38
0.6283167 -0.2972486 0.62404275 1.0948244e-38
0.62597609 -0.29376549 0.62141025 1.0948244e-38
0.61535192 -0.28203613 0.62363505 1.0948244e-38
0.61450887 -0.27990037 0.62054664 1.0948244e-38
0.60560751 -0.27029586 0.62357026 1.0948244e-38
0.61947668 -0.27211839 0.6228711 1.0948244e-38
0.60535443 -0.2690261 0.62112278 1.0948244e-38
0.59855199 -0.26110864 0.62296963 1.0948244e-38
0.59402192 -0.25548899 0.62470746 1.0948244e-38
0.59757417 -0.25890946 0.6200738 1.0948244e-38
0.59267616 -0.25311801 0.62230814 1.0948244e-38
0.58774447 -0.24677049 0.62324566 1.0948244e-38
0.58639967 -0.24440293 0.62085485 1.0948244e-38
0.57975262 -0.2361467 0.62137127 1.0948244e-38
0.581249 -0.2385779 0.62354207 1.0948244e-38
0.57498938 -0.23112963 0.62499899 1.0948244e-38
0.57399619 -0.22951667 0.62356097 1.0948244e-38
0.57086432 -0.2240984 0.62224174 1.0948244e-38
0.55912715 -0.21144007 0.62444401 1.0948244e-38
0.55640137 -0.20792176 0.6226579 1.0948244e-38
0.55230278 -0.20259029 0.62281495 1.0948244e-38
0.54850543 -0.19740549 0.62258065 1.0948244e-38
0.54439104 -0.19088124 0.62283635 1.0948244e-38
0.54595309 -0.1934043 0.62247449 1.0948244e-38
0.54253495 -0.18730271 0.62268871 1.0948244e-38
0.53163457 -0.18392394 0.62110364 1.0948244e-38
0.53945136 -0.18135762 0.62244672 1.0948244e-38
0.54068267 -0.1837315 0.622545 1.0948244e-38
0.53726304 -0.17713261 0.62186509 1.0948244e-38
0.53432024 -0.17134401 0.62192369 1.0948244e-38
0.53558362 -0.17384785 0.62289894 1.0948244e-38
0.53441656 -0.16974777 0.62178445 1.0948244e-38
0.53762114 -0.16785629 0.62215173 1.0948244e-38
0.54140598 -0.16629319 0.62374991 1.0948244e-38
0.5434345 -0.16389993 0.6219607 1.0948244e-38
0.54733986 -0.16185272 0.6231181 1.0948244e-38
0.55090666 -0.16033959 0.62478179 1.0948244e-38
0.54961991 -0.15901548 0.62100005 1.0948244e-38
0.55256665 -0.15806533 0.62244278 1.0948244e-38
0.55704308 -0.15635982 0.62269253 1.0948244e-38
0.56152648 -0.15536024 0.62390786 1.0948244e-38
0.55986917 -0.1538929 0.62061566 1.0948244e-38
0.56315494 -0.15370873 0.62235498 1.0948244e-38
0.56625682 -0.1532457 0.6238957 1.0948244e-38
0.61842602 -0.28700364 0.62804639 1.0948244e-38
0.62093496 -0.28998524 0.62904143 1.0948244e-38
0.60377198 -0.28378537 0.62638563 1.0948244e-38
0.61442876 -0.28153813 0.62892497 1.0948244e-38
0.61615789 -0.28384781 0.62813091 1.0948244e-38
0.60949171 -0.27535442 0.62827617 1.0948244e-38
0.61189318 -0.27855769 0.62799394 1.0948244e-38
0.60698014 -0.2723965 0.6273371 1.0948244e-38
0.60295761 -0.26712444 0.62765282 1.0948244e-38
0.59928983 -0.2624267 0.62708336 1.0948244e-38
0.6013943 -0.26478636 0.62896645 1.0948244e-38
0.59586334 -0.25781649 0.62783569 1.0948244e-38
0.59170026 -0.25222617 0.62828743 1.0948244e-38
0.58846587 -0.24809456 0.62737054 1.0948244e-38
0.58325803 -0.24155709 0.62779355 1.0948244e-38
0.58573842 -0.24444255 0.62865663 1.0948244e-38
0.57903314 -0.23645233 0.6278851 1.0948244e-38
0.58065319 -0.23835351 0.62848943 1.0948244e-38
0.57409656 -0.23020972 0.62896901 1.0948244e-38
0.57636756 -0.23313095 0.62776309 1.0948244e-38
0.57168937 -0.22738546 0.62806737 1.0948244e-38
0.5675832 -0.22231217 0.62856257 1.0948244e-38
0.56390929 -0.21761262 0.62757754 1.0948244e-38
0.55930912 -0.21161991 0.62836242 1.0948244e-38
0.5612337 -0.21414071 0.62709153 1.0948244e-38
0.55455422 -0.20548256 0.62524104 1.0948244e-38
0.55620176 -0.20759086 0.62758029 1.0948244e-38
0.55233902 -0.20249021 0.62834036 1.0948244e-38
0.54813164 -0.19621073 0.62776512 1.0948244e-38
0.55010968 -0.19938065 0.62729603 1.0948244e-38
0.54428643 -0.19038963 0.62578481 1.0948244e-38
0.54598796 -0.1928609 0.6275484 1.0948244e-38
0.5428701 -0.18777722 0.62780279 1.0948244e-38
0.53939378 -0.18115997 0.62719876 1.0948244e-38
0.54057783 -0.1835091 0.62736017 1.0948244e-38
0.53762668 -0.17757641 0.6274122 1.0948244e-38
0.53465044 -0.17145415 0.6270569 1.0948244e-38
0.53558713 -0.172328 0.62765539 1.0948244e-38
0.538077 -0.16892782 0.62685847 1.0948244e-38
0.54286087 -0.16664381 0.62781781 1.0948244e-38
0.54569638 -0.16549671 0.62935317 1.0948244e-38
0.54766881 -0.16381364 0.62712044 1.0948244e-38
0.55197638 -0.16133305 0.62726152 1.0948244e-38
0.5544554 -0.15912567 0.6253792 1.0948244e-38
0.55772686 -0.1583205 0.62749994 1.0948244e-38
0.56151664 -0.1561431 0.62739712 1.0948244e-38
0.56348991 -0.15489525 0.62953591 1.0948244e-38
0.56663966 -0.15304314 0.62800109 1.0948244e-38
0.57007319 -0.15090494 0.62886959 1.0948244e-38
0.63174802 -0.30522686 0.63489932 1.0948244e-38
0.62812883 -0.30108303 0.63385439 1.0948244e-38
0.62447053 -0.2951898 0.6328795 1.0948244e-38
0.62612206 -0.29795888 0.63267285 1.0948244e-38
0.62264621 -0.2922523 0.6323933 1.0948244e-38
0.618765 -0.28627068 0.63172996 1.0948244e-38
0.62076163 -0.2889843 0.63335162 1.0948244e-38
0.61483109 -0.28084865 0.63252455 1.0948244e-38
0.61655843 -0.28285351 0.63310301 1.0948244e-38
0.61219108 -0.27753121 0.63227355 1.0948244e-38
0.60796726 -0.27212253 0.63212079 1.0948244e-38
0.61013144 -0.27421057 0.63430953 1.0948244e-38
0.60397249 -0.26699969 0.63207197 1.0948244e-38
0.6052438 -0.26809528 0.63364756 1.0948244e-38
0.59912705 -0.2614015 0.63050103 1.0948244e-38
0.60128778 -0.26340699 0.63275558 1.0948244e-38
0.59661597 -0.25746119 0.63290322 1.0948244e-38
0.59321779 -0.25324479 0.63217527 1.0948244e-38
0.58834529 -0.24685091 0.63211149 1.0948244e-38
0.59069669 -0.2496808 0.63315928 1.0948244e-38
0.58421165 -0.24151021 0.63340938 1.0948244e-38
0.58595067 -0.24373601 0.63250124 1.0948244e-38
0.57890737 -0.23560874 0.63218117 1.0948244e-38
0.58150995 -0.23853412 0.63285494 1.0948244e-38
0.57671398 -0.23298176 0.63189352 1.0948244e-38
0.57222015 -0.22743933 0.63286376 1.0948244e-38
0.56829053 -0.22289737 0.63219881 1.0948244e-38
0.5633229 -0.21661744 0.63252085 1.0948244e-38
0.56567264 -0.21963795 0.63207746 1.0948244e-38
0.55883104 -0.21093142 0.63178647 1.0948244e-38
0.5609827 -0.21360889 0.63296628 1.0948244e-38
0.55494052 -0.20587222 0.63301849 1.0948244e-38
0.55696452 -0.20844977 0.63297623 1.0948244e-38
0.55231327 -0.20218837 0.63252759 1.0948244e-38
0.54936695 -0.19756103 0.63249576 1.0948244e-38
0.54669797 -0.19325483 0.63292491 1.0948244e-38
0.54309046 -0.1874634 0.63257748 1.0948244e-38
0.53933632 -0.18049368 0.6314522 1.0948244e-38
0.54070485 -0.18303537 0.63227272 1.0948244e-38
0.53778005 -0.17726552 0.63229126 1.0948244e-38
0.53488141 -0.17173392 0.6309039 1.0948244e-38
0.53626454 -0.17217107 0.63307601 1.0948244e-38
0.53907907 -0.16901469 0.63181961 1.0948244e-38
0.54200959 -0.16730219 0.63180447 1.0948244e-38
0.54567915 -0.16509712 0.63214856 1.0948244e-38
0.54740679 -0.16409127 0.63340288 1.0948244e-38
0.55229849 -0.16181688 0.63227189 1.0948244e-38
0.55546296 -0.16016933 0.63091499 1.0948244e-38
0.55794483 -0.15870935 0.63217938 1.0948244e-38
0.56211406 -0.15647565 0.63362086 1.0948244e-38
0.5641982 -0.15457699 0.63270563 1.0948244e-38
0.56695324 -0.15292139 0.63309181 1.0948244e-38
0.57046521 -0.15049636 0.63247311 1.0948244e-38
0.63321978 -0.30537623 0.6358366 1.0948244e-38
0.62906694 -0.30111757 0.63723475 1.0948244e-38
0.63155073 -0.30275092 0.63784647 1.0948244e-38
0.62657768 -0.2976869 0.63790804 1.0948244e-38
0.62338126 -0.29271066 0.63692856 1.0948244e-38
0.61935902 -0.28593537 0.63779211 1.0948244e-38
0.62117642 -0.28885171 0.63827085 1.0948244e-38
0.61709654 -0.28246003 0.63705742 1.0948244e-38
0.61302871 -0.27677304 0.63748556 1.0948244e-38
0.61561245 -0.27976352 0.63834852 1.0948244e-38
0.60889721 -0.27159414 0.6372124 1.0948244e-38
0.61061037 -0.27357715 0.63778418 1.0948244e-38
0.60394919 -0.26546699 0.63664496 1.0948244e-38
0.60642827 -0.26838809 0.63759398 1.0948244e-38
0.60197294 -0.26279983 0.63751304 1.0948244e-38
0.59769797 -0.25754857 0.63696897 1.0948244e-38
0.59328663 -0.25208044 0.63663518 1.0948244e-38
0.59596425 -0.25479466 0.63863772 1.0948244e-38
0.58885264 -0.24629186 0.63691384 1.0948244e-38
0.59102798 -0.24875177 0.63818181 1.0948244e-38
0.58302498 -0.24113084 0.63755226 1.0948244e-38
0.58673459 -0.24359427 0.63693994 1.0948244e-38
0.58172047 -0.23758103 0.63803887 1.0948244e-38
0.57717967 -0.23263074 0.63720566 1.0948244e-38
0.57259905 -0.22742482 0.63782942 1.0948244e-38
0.56744063 -0.22141227 0.63790858 1.0948244e-38
0.57005781 -0.2245567 0.63712925 1.0948244e-38
0.56358576 -0.21657734 0.6376484 1.0948244e-38
0.56519872 -0.21868815 0.63683206 1.0948244e-38
0.55909598 -0.21090692 0.6369158 1.0948244e-38
0.56107146 -0.2133894 0.63741559 1.0948244e-38
0.5546515 -0.20527819 0.63616651 1.0948244e-38
0.55651164 -0.20746516 0.63817292 1.0948244e-38
0.55324411 -0.20281553 0.63755834 1.0948244e-38
0.54915577 -0.19644058 0.63737631 1.0948244e-38
0.55073547 -0.19881026 0.63792235 1.0948244e-38
0.54622382 -0.19178255 0.63744223 1.0948244e-38
0.54370821 -0.18786784 0.63746369 1.0948244e-38
0.54132611 -0.18308246 0.63782489 1.0948244e-38
0.53876227 -0.17766225 0.63719928 1.0948244e-38
0.54010808 -0.17930178 0.63999951 1.0948244e-38
0.53659016 -0.1724081 0.63753647 1.0948244e-38
0.53780794 -0.16875629 0.63776928 1.0948244e-38
0.54272282 -0.16617116 0.63741332 1.0948244e-38
0.54762948 -0.16379367 0.63767499 1.0948244e-38
0.55261737 -0.16141379 0.63787645 1.0948244e-38
0.55801821 -0.15888485 0.63702315 1.0948244e-38
0.56344748 -0.15626772 0.63783634 1.0948244e-38
0.5681724 -0.15325947 0.63647187 1.0948244e-38
0.57201868 -0.15104856 0.63792014 1.0948244e-38
0.62661493 -0.29700407 0.64244342 1.0948244e-38
0.62353158 -0.29200268 0.64214134 1.0948244e-38
0.62528664 -0.29489094 0.64270538 1.0948244e-38
0.6210987 -0.28790945 0.64240855 1.0948244e-38
0.61808115 -0.28277314 0.64295399 1.0948244e-38
0.61427218 -0.27708295 0.64135069 1.0948244e-38
0.6156342 -0.27889395 0.64236677 1.0948244e-38
0.60916454 -0.27057669 0.64228272 1.0948244e-38
0.61181909 -0.27358675 0.64303172 1.0948244e-38
0.60676199 -0.26779044 0.64213175 1.0948244e-38
0.60213822 -0.26218149 0.6423068 1.0948244e-38
0.59844846 -0.2575171 0.64179128 1.0948244e-38
0.60044008 -0.25980598 0.64376861 1.0948244e-38
0.5937025 -0.25146869 0.64152247 1.0948244e-38
0.59572661 -0.25385979 0.64299262 1.0948244e-38
0.58942008 -0.2457794 0.64295399 1.0948244e-38
0.59179866 -0.24887715 0.64260662 1.0948244e-38
0.5870887 -0.24297655 0.64190525 1.0948244e-38
0.58235502 -0.23722668 0.64317381 1.0948244e-38
0.57802474 -0.23256063 0.6428777 1.0948244e-38
0.57246006 -0.22660497 0.64208764 1.0948244e-38
0.5752272 -0.22957224 0.64249402 1.0948244e-38
0.56908268 -0.22290619 0.64205724 1.0948244e-38
0.56391573 -0.21656847 0.64264363 1.0948244e-38
0.56620646 -0.21930256 0.64363635 1.0948244e-38
0.55878431 -0.21005546 0.64143312 1.0948244e-38
0.56124169 -0.21320581 0.64172572 1.0948244e-38
0.55729246 -0.2079019 0.64278072 1.0948244e-38
0.55363137 -0.20235944 0.64257151 1.0948244e-38
0.54887998 -0.19518039 0.64140296 1.0948244e-38
0.55086893 -0.19810188 0.64228696 1.0948244e-38
0.54771459 -0.19319502 0.6423344 1.0948244e-38
0.54387283 -0.18716347 0.64290929 1.0948244e-38
0.54534727 -0.18977489 0.6408549 1.0948244e-38
0.54166979 -0.18235821 0.64280921 1.0948244e-38
0.53911006 -0.1762912 0.64276844 1.0948244e-38
0.54020214 -0.17891614 0.64259791 1.0948244e-38
0.53745461 -0.17241724 0.64210236 1.0948244e-38
0.53813124 -0.16847575 0.64278483 1.0948244e-38
0.54210728 -0.16656084 0.64265388 1.0948244e-38
0.54590493 -0.16504486 0.64416254 1.0948244e-38
0.54816985 -0.16361605 0.64238483 1.0948244e-38
0.5522579 -0.16166076 0.64273673 1.0948244e-38
0.55599868 -0.16010691 0.64386284 1.0948244e-38
0.55842328 -0.15868551 0.64192265 1.0948244e-38
0.56232655 -0.15687242 0.64315718 1.0948244e-38
0.56551838 -0.15520486 0.6418491 1.0948244e-38
0.56782484 -0.15416555 0.64282942 1.0948244e-38
0.57215947 -0.15192813 0.64248681 1.0948244e-38
0.57530141 -0.15006262 0.64104348 1.0948244e-38
0.63262606 -0.30539906 0.64995992 1.0948244e-38
0.62936485 -0.30091321 0.6471777 1.0948244e-38
0.63111395 -0.30349475 0.6490925 1.0948244e-38
0.62751198 -0.29744181 0.64752281 1.0948244e-38
0.6240254 -0.29133394 0.6469025 1.0948244e-38
0.6254822 -0.29407829 0.6464861 1.0948244e-38
0.62193662 -0.28753671 0.6472863 1.0948244e-38
0.61854446 -0.28202343 0.64685529 1.0948244e-38
0.62005007 -0.28361136 0.6490317 1.0948244e-38
0.6140871 -0.27582949 0.64694381 1.0948244e-38
0.61627859 -0.27832791 0.64827406 1.0948244e-38
0.61139733 -0.27251542 0.6475718 1.0948244e-38
0.60736907 -0.26770848 0.64745891 1.0948244e-38
0.6029436 -0.2625365 0.64689296 1.0948244e-38
0.60521615 -0.26496202 0.64852226 1.0948244e-38
0.5981316 -0.25644711 0.64667016 1.0948244e-38
0.60014451 -0.25883389 0.64815879 1.0948244e-38
0.59383976 -0.25074163 0.64806718 1.0948244e-38
0.59622037 -0.25384593 0.64773953 1.0948244e-38
0.59155011 -0.24795562 0.64695483 1.0948244e-38
0.58724165 -0.24238899 0.6476289 1.0948244e-38
0.5838123 -0.23822896 0.64702779 1.0948244e-38
0.57833296 -0.23167802 0.64785975 1.0948244e-38
0.58101106 -0.23461033 0.64840794 1.0948244e-38
0.57365596 -0.22670829 0.64725459 1.0948244e-38
0.57552278 -0.22869197 0.6474961 1.0948244e-38
0.5687117 -0.2215312 0.64615256 1.0948244e-38
0.57121325 -0.22400637 0.64733142 1.0948244e-38
0.56478834 -0.21655291 0.64822376 1.0948244e-38
0.56657571 -0.21848451 0.64853513 1.0948244e-38
0.55986065 -0.21072276 0.64809203 1.0948244e-38
0.56177896 -0.21322079 0.64713228 1.0948244e-38
0.5704267 -0.2119168 0.64709443 1.0948244e-38
